0.00159849 0.00606136 -0.00544379 0 0 0 
0.00322831 0.0129832 -0.0116862 0 0 0 
0.00536197 0.0240553 -0.0210427 0 0 0 
0.00609797 0.0295906 -0.0252561 0 0 0 
0.00685794 0.0379246 -0.0273636 0 0 0 
0.00836399 0.0470847 -0.0221117 0 0 0 
0.0086956 0.051337 -0.013121 0 0 0 
0.00792441 0.0485201 -0.00840808 0 0 0 
0.0055838 0.0345329 -0.00612555 0 0 0 
0.00390849 0.0228778 -0.00272586 0 0 0 
0.000935781 0.00485277 0.000505337 0 0 0 
-0.00330917 -0.0147855 0.000779006 0 0 0 
-0.0106566 -0.0418205 0.003423 0 0 0 
-0.0157051 -0.0562089 0.00898267 0 0 0 
-0.0180629 -0.0586659 0.0144653 0 0 0 
-0.0163286 -0.0520304 0.0124718 0 0 0 
-0.0123561 -0.0390231 0.0110564 0 0 0 
-0.00912387 -0.0287578 0.00800039 0 0 0 
-0.00444957 -0.0138152 0.00605198 0 0 0 
0.00171205 0.00813548 0.00765198 0 0 0 
0.00184734 0.0237366 0.00709303 0 0 0 
-0.00285369 0.0357456 0.00853027 0 0 0 
-0.00651136 0.0438819 0.00932813 0 0 0 
-0.0088523 0.0499938 0.00613843 0 0 0 
-0.00866787 0.049211 0.00412954 0 0 0 
-0.0056231 0.0392755 -0.00132328 0 0 0 
-0.00432191 0.03125 -0.00155779 0 0 0 
-0.00311482 0.0194197 -0.00124462 0 0 0 
-0.00353006 0.00554705 -0.00230025 0 0 0 
-0.00697762 -0.0134855 -0.00920401 0 0 0 
-0.0121015 -0.0319129 -0.0180979 0 0 0 
-0.0149974 -0.0417161 -0.017264 0 0 0 
-0.0171319 -0.04852 -0.00837566 0 0 0 
-0.016314 -0.0464454 -0.00341133 0 0 0 
-0.012318 -0.0355098 0.000856191 0 0 0 
-0.0100135 -0.0287585 0.000679291 0 0 0 
-0.00552109 -0.0135561 0.00187851 0 0 0 
-0.00249846 -0.00326774 0.00422602 0 0 0 
0.00369481 0.0188932 0.00988316 0 0 0 
0.00727558 0.0336057 0.0116541 0 0 0 
0.00843482 0.039934 0.00824414 0 0 0 
0.00829698 0.0410953 0.00327952 0 0 0 
0.00803339 0.0409988 0.000356218 0 0 0 
0.00748756 0.0398468 -0.00290357 0 0 0 
0.00596425 0.0336212 -0.00621644 0 0 0 
0.00511586 0.0297346 -0.00737772 0 0 0 
0.00359795 0.0210124 -0.00542107 0 0 0 
0.00182534 0.00982128 -0.00139742 0 0 0 
0 -0.00220794 0.00427604 0 0 0 
-0.00639061 -0.0293258 0.0120482 0 0 0 
-0.0121609 -0.0474942 0.00883498 0 0 0 
-0.0174611 -0.0602042 0.00486752 0 0 0 
-0.0159463 -0.0527023 0.00615486 0 0 0 
-0.0133232 -0.0435696 0.00589159 0 0 0 
-0.00916992 -0.0299219 0.00398228 0 0 0 
-0.00655094 -0.0210992 0.00200028 0 0 0 
-0.00340111 -0.0054839 0.0020043 0 0 0 
-0.000252149 0.014955 0.00605685 0 0 0 
-0.00283847 0.0393302 0.0127066 0 0 0 
-0.00694553 0.0517744 0.0151296 0 0 0 
-0.00787658 0.0508289 0.0103828 0 0 0 
-0.00503475 0.0418203 0.00558239 0 0 0 
-0.00370388 0.0318426 0.00429749 0 0 0 
-0.00284332 0.0232638 0.00381117 0 0 0 
-0.00200084 0.0069078 0.00535268 0 0 0 
-0.00177589 -0.0179325 0.00273383 0 0 0 
0.00417381 -0.0484812 -0.0127042 0 0 0 
0.0102614 -0.0543085 -0.0237466 0 0 0 
0.0122742 -0.0480536 -0.0258423 0 0 0 
0.00983921 -0.0388547 -0.020669 0 0 0 
0.00746247 -0.0237514 -0.0185298 0 0 0 
0.00610534 -0.0162774 -0.0183921 0 0 0 
0.0046993 -0.00915757 -0.017287 0 0 0 
0.00382082 -0.00448699 -0.0165033 0 0 0 
0.0031422 -0.00155266 -0.0147103 0 0 0 
0.00240523 0.000500877 -0.0121721 0 0 0 
0.00206409 0.00152519 -0.0108726 0 0 0 
0.00142692 0.00163419 -0.00770307 0 0 0 
0.00103494 0.0012089 -0.00558912 0 0 0 
0.00078066 0.000917921 -0.00421501 0 0 0 
0.000589145 0.000697611 -0.0031708 0 0 0 
0.000425279 0.000505544 -0.00229414 0 0 0 
0.000319905 0.000380788 -0.00172467 0 0 0 
0.000240297 0.000290225 -0.00129678 0 0 0 
0.000166112 0.000197988 -0.000894709 0 0 0 
0.000124549 0.000150767 -0.000672752 0 0 0 
0 0.000111805 -0.000505072 0 0 0 
0 0 -0.00037959 0 0 0 
0 0 -0.00026253 0 0 0 
0 0 -0.000208526 0 0 0 
0 0 -0.00014539 0 0 0 
0 0 -0.000104434 0 0 0 
